ply
format ascii 1.0
element vertex 348
property float x
property float y
property float z
property uchar red
property uchar green
property uchar blue
end_header
-0.010976732 0.10659003 0.9922089 74 71 75
-0.0115363 0.098983765 0.994513 49 46 47
-0.010561347 0.09529567 0.9954399 74 70 71
-0.012741208 0.10142064 0.9986633 63 60 62
-0.010198116 0.10305405 0.9884302 55 52 54
-0.01050204 0.096111774 0.9905137 52 49 51
-0.011802614 0.10414839 0.9953897 69 66 69
-0.012351096 0.09658027 0.99767435 48 45 46
-0.011193514 0.09336352 0.9984336 101 95 97
-0.013282895 0.10588837 0.9997887 80 77 80
-0.010828257 0.10111761 0.99143994 50 47 49
-0.010507226 0.095765114 0.99295634 58 54 56
-0.009100914 0.1065166 0.98253924 71 68 71
-0.010071278 0.09787083 0.9852404 53 49 51
-0.009518802 0.099939585 0.9798404 56 53 54
-0.00853771 0.0962491 0.98078305 95 90 91
-0.009621143 0.10485721 0.985462 60 57 60
-0.010440648 0.09660101 0.98801744 54 50 52
-0.009298742 0.100832224 0.97718513 62 58 60
-0.008482754 0.09671998 0.97828186 94 89 91
-0.009206951 0.10173774 0.97218055 71 67 69
-0.008885384 0.09636712 0.97373754 93 88 90
-0.009749949 0.099018574 0.98250204 53 50 51
-0.008934677 0.09491563 0.98358965 99 94 95
-0.009221375 0.10136485 0.9746556 68 64 66
-0.008668065 0.09658384 0.975996 93 88 90
-0.009455681 0.10245776 0.9625337 72 68 71
-0.009939671 0.0950346 0.96485734 79 75 77
-0.0093874335 0.10229206 0.9649437 71 68 70
-0.009661555 0.09540415 0.9670662 85 81 82
-0.011054575 0.093551636 0.9560099 67 63 65
-0.0095927715 0.102787256 0.95770663 72 69 72
-0.010496974 0.09429264 0.9604363 72 68 70
-0.009661317 0.10295248 0.95528907 72 69 73
-0.010775626 0.09392238 0.9582237 69 65 67
-0.009524167 0.10262251 0.9601213 72 69 72
-0.010218263 0.09466362 0.9626476 75 71 73
-0.011192024 0.09353876 0.9536619 65 62 63
0.0393458 0.067046404 0.94891995 75 71 73
0.040916264 0.06489539 0.9493303 65 62 64
0.042635083 0.0631001 0.9496068 65 61 63
0.043217957 0.058637142 0.95089 68 64 66
0.04482335 0.05659008 0.95126265 72 68 70
0.046536446 0.054799557 0.9515386 73 69 71
0.048360646 0.053272963 0.9517151 71 67 69
0.050206423 0.051797867 0.9518722 71 68 70
0.052375793 0.051076412 0.95174444 76 72 74
0.054230094 0.049623728 0.9518932 81 78 81
0.05608809 0.048181534 0.95203805 89 85 89
0.058101 0.04709816 0.95204735 93 89 93
0.059834957 0.045374393 0.9522994 96 92 96
0.06143552 0.043347597 0.9526663 98 94 98
-0.011328518 0.09386468 0.94882905 65 62 64
-0.0112602115 0.09370136 0.95124686 65 61 63
0.043841004 0.059864044 0.952785 86 83 87
0.045461833 0.057852745 0.9531429 90 86 89
0.04718864 0.05609393 0.9534061 90 86 90
0.049044013 0.0546391 0.9535549 93 90 94
0.037263215 0.06823802 0.94650793 71 67 69
0.03899139 0.066455126 0.9467799 63 60 62
0.04101485 0.06537366 0.94678694 88 84 87
0.043066025 0.05851841 0.9485766 53 50 51
0.04457587 0.056244373 0.9490357 55 52 53
0.046288192 0.054450512 0.9493135 60 57 58
0.04797554 0.05260229 0.9496123 63 60 61
0.04981762 0.051117897 0.9497735 64 60 61
0.051902473 0.05019951 0.94972 62 58 59
0.053711355 0.048641443 0.9499092 64 60 61
0.05547911 0.046990156 0.95013374 67 64 65
0.057234466 0.045313597 0.95036817 70 66 67
0.058921754 0.043484688 0.95066124 69 65 67
0.060771286 0.04203081 0.95081145 69 65 67
0.06235212 0.039964914 0.9511949 71 67 69
0.06415135 0.03840208 0.95138705 75 71 73
0.06598419 0.036917686 0.95154953 79 76 79
0.06781602 0.035434008 0.9517121 84 80 84
0.06967032 0.034002542 0.9518547 87 83 87
0.07153392 0.032594204 0.9519888 90 86 90
0.073411345 0.031219482 0.95211023 102 98 102
-0.011396825 0.094027996 0.9464089 66 62 64
-0.011533976 0.09435415 0.9415611 68 64 66
-0.009258747 0.101943016 0.9697633 71 68 70
-0.009125531 0.0960927 0.9714983 92 88 89
-0.011602581 0.09451747 0.93913335 69 66 68
0.044914424 0.05727315 0.94628555 73 69 71
0.046373367 0.054880857 0.9467909 53 50 51
0.048032165 0.05296254 0.94711703 49 46 47
0.049815476 0.051338196 0.94733155 51 48 48
0.05193782 0.050503492 0.9472459 48 45 46
0.053644955 0.048706055 0.9475263 47 44 45
-0.0116714835 0.094680786 0.9367032 70 66 68
-0.0114655495 0.09419036 0.9439864 66 62 64
-0.009318888 0.10212803 0.9673509 71 68 70
-0.009383261 0.095773935 0.96927357 90 85 87
-0.011740088 0.09484506 0.93427026 70 67 69
0.05530572 0.046805143 0.9478466 48 45 47
0.05697322 0.04492402 0.9481593 53 49 50
0.058585823 0.042921543 0.9485193 57 54 55
0.060219347 0.040971518 0.9488591 59 55 56
0.061920404 0.039180517 0.9491386 59 55 56
0.06366187 0.037484884 0.949382 60 56 57
0.06544602 0.035889626 0.9495872 62 58 59
0.067233264 0.03430438 0.949789 63 60 61
0.06902158 0.032724142 0.9499889 63 60 61
0.07083744 0.031208754 0.95016426 62 59 61
0.07262671 0.029635906 0.9503617 87 84 86
0.050908625 0.054107666 0.943915 84 80 81
0.052971423 0.053125143 0.9438848 82 78 80
0.05603397 0.054457664 0.942971 81 78 80
0.056027114 0.04868722 0.9447683 75 71 73
0.057415366 0.046155453 0.9453301 70 66 68
0.058810294 0.043646574 0.9458839 62 59 60
0.06026572 0.041283607 0.9463821 56 53 54
0.06187278 0.039274216 0.9467458 52 49 50
0.063549936 0.037428856 0.94704694 50 47 48
0.06526542 0.035675526 0.9473133 51 48 49
0.06699115 0.033948183 0.9475698 53 49 50
0.06874025 0.032277584 0.9478048 51 48 49
0.070488274 0.030607462 0.94803977 49 46 47
0.07240498 0.029320478 0.9481281 82 78 80
0.071968615 0.034324884 0.9418916 88 84 85
0.07321811 0.03152013 0.94256467 95 91 93
0.061821103 0.045055628 0.9425762 96 91 93
0.062814176 0.041629314 0.94348335 80 76 77
0.06407404 0.03882432 0.944153 63 60 61
0.065641224 0.036726713 0.9445517 51 48 49
0.06722385 0.034669638 0.94493514 44 41 42
0.06889707 0.032823086 0.94523835 40 38 39
0.070573986 0.030987978 0.9455371 38 36 36
0.07237214 0.02943039 0.9457295 72 69 70
-0.011979163 0.09559512 0.924478 73 70 73
-0.012286305 0.08858824 0.92675227 79 74 76
-0.011808872 0.09500909 0.9318349 71 68 70
-0.011453211 0.08968997 0.9334504 98 93 94
-0.011933148 0.0953722 0.9269433 73 69 72
-0.012008607 0.088955164 0.9289863 82 78 80
-0.011877775 0.09517288 0.92939705 72 69 71
-0.01173085 0.08932233 0.93121904 88 83 85
-0.012071431 0.09604168 0.9195389 72 70 73
-0.012842715 0.08785272 0.9222803 75 71 73
-0.012163818 0.09648895 0.9145893 73 70 74
-0.013399303 0.087117195 0.9178031 71 67 68
-0.013791144 0.08679938 0.91315734 69 65 67
-0.012117684 0.09626508 0.9170656 72 69 73
-0.01312089 0.08748484 0.92004234 72 68 70
-0.012024879 0.095819 0.92200947 74 71 74
-0.012564421 0.088220835 0.92451704 77 73 75
-0.0136781335 0.08674836 0.91556233 69 65 67
-0.013946354 0.08708143 0.90826976 69 65 68
-0.014140844 0.087604046 0.9008802 73 69 71
-0.013868749 0.08694005 0.91071486 69 65 67
-0.014024019 0.087222815 0.90582216 70 66 68
-0.014175773 0.087854385 0.89838207 74 70 72
-0.014287055 0.08825207 0.8934183 71 68 70
-0.013891399 0.083002806 0.8950798 96 91 93
-0.014101982 0.08736348 0.903372 71 68 70
-0.014229059 0.08805919 0.8958992 73 69 72
-0.013602436 0.08339691 0.8973234 101 96 98
-0.01386404 0.09068799 0.8828004 73 70 74
-0.015048444 0.08142376 0.8860921 84 80 81
-0.016511798 0.07941198 0.8748423 92 88 91
-0.014235616 0.089063644 0.8882787 69 66 69
-0.014469445 0.08221412 0.8905882 87 83 84
-0.014296234 0.088568926 0.89088535 69 66 69
-0.014180481 0.08260846 0.8928348 91 87 89
-0.016805291 0.079007864 0.8725889 93 89 93
-0.015634239 0.08061743 0.8815967 87 83 85
-0.015341163 0.08102083 0.8838451 85 81 83
-0.014137328 0.08965373 0.88563055 71 68 71
-0.014758706 0.081819296 0.88834065 86 81 83
-0.016218185 0.07981634 0.877094 91 87 90
-0.015925825 0.08021808 0.8793456 89 85 87
-0.017099082 0.078603745 0.87033427 92 89 92
-0.016804695 0.079687595 0.8674675 91 88 92
0.01636815 0.06524634 0.6278373 68 65 69
0.016268492 0.0653007 0.6251484 73 70 75
0.019020379 0.06562042 0.62439585 67 65 69
0.013829887 0.06513643 0.6311351 73 70 75
0.01644218 0.06513071 0.6305555 72 69 73
0.02138561 0.0644238 0.6297554 89 86 90
0.016155541 0.0653224 0.6224737 73 71 75
0.018918872 0.06566715 0.62170625 63 61 64
0.0229128 0.06897259 0.61939394 55 52 55
0.018600881 0.06548309 0.6164638 65 63 66
0.021402359 0.065906525 0.6156504 39 37 39
0.021248758 0.065825224 0.6130177 76 73 77
0.01880008 0.0656724 0.61903524 60 57 61
0.021584988 0.06605792 0.6182437 41 39 41
0.024241984 0.0661273 0.6176164 96 91 93
0.0399096 0.0009768009 0.6128272 74 70 72
0.05015731 0.0010993481 0.6023612 68 65 67
0.04244089 0.0010070801 0.60955405 58 54 56
0.044977248 0.0010371208 0.6062741 56 52 54
0.68479097 0.008402348 0.29672873 33 81 32
0.6843928 0.003171444 0.2994163 72 132 73
0.6845914 0.0063791275 0.28182817 15 60 14
0.6845449 0.0016257763 0.28421366 15 66 13
0.6877129 0.01609373 0.28257632 70 105 72
0.68467116 0.0071890354 0.28779542 18 65 16
0.6844839 0.0022449493 0.29030275 16 66 14
0.6869993 0.014758825 0.28022182 64 99 66
0.68463135 0.0067842007 0.28481305 17 63 15
0.6845145 0.0019357204 0.28725934 15 63 13
0.68475103 0.0079984665 0.29375327 21 65 20
0.6844231 0.0028626919 0.29638124 18 65 16
0.6862855 0.013423204 0.27786827 59 96 61
0.6857021 0.011569023 0.26931667 44 82 44
0.6844717 0.005162239 0.27285957 15 61 14
0.6846365 0.00069594383 0.27506042 16 71 14
0.6884252 0.01742673 0.28493237 77 113 80
0.6847112 0.007594347 0.2907753 19 64 18
0.68445337 0.0025537014 0.29334354 17 70 15
0.68588424 0.012169838 0.2721809 49 86 50
0.6845118 0.005568266 0.27585137 15 60 13
0.6846062 0.001005888 0.27811408 16 72 14
0.68515384 0.009760618 0.26071608 27 73 26
0.6843518 0.0039429665 0.26387024 15 64 14
0.68551934 0.010966301 0.26645184 39 80 39
0.6844317 0.0047564507 0.26986563 15 62 14
0.684667 0.0003848076 0.2720045 16 68 14
0.6860671 0.01277256 0.2750424 54 91 56
0.68455184 0.0059742928 0.27884078 15 58 13
0.68457556 0.0013160706 0.28116548 16 69 14
0.68497074 0.009157419 0.25784588 21 66 20
0.6843513 0.003590107 0.26083088 15 64 13
0.68664944 0.014103413 0.23544252 87 120 91
0.68476844 0.00817585 0.25194097 17 58 16
0.68441236 0.002969265 0.25468516 14 61 13
0.6853365 0.010363579 0.26358497 33 78 32
0.68439174 0.00434947 0.26686907 15 63 14
0.68469775 7.43866e-05 0.26894546 15 66 13
0.68736804 0.015447617 0.2378124 95 124 99
0.6846479 0.006954193 0.24289 16 58 15
0.6845045 0.0020358562 0.24544609 15 64 13
0.6848086 0.008583069 0.25495315 18 60 17
0.68438196 0.0032799244 0.2577592 15 62 13
0.6847285 0.0077693462 0.24892616 17 58 16
0.6844429 0.002657652 0.2516085 14 61 12
0.6846081 0.0065467358 0.23986769 16 58 15
0.6845349 0.0017242432 0.24236166 15 66 13
0.6857916 0.011863232 0.22705853 43 89 43
0.68448734 0.0053207874 0.23078835 15 58 13
0.68462706 0.0007879734 0.233091 15 66 13
0.6859753 0.012468338 0.2299552 57 99 59
0.68452764 0.0057296753 0.23381698 15 57 14
0.6845964 0.0010998249 0.23618388 15 66 13
0.68615854 0.013073683 0.23285007 75 112 78
0.6845678 0.0061383247 0.23684359 16 58 14
0.68456566 0.0014119148 0.23927402 15 66 13
0.6846881 0.007361412 0.24590933 17 58 15
0.68447375 0.002347231 0.24852824 14 61 12
0.6854235 0.010649443 0.22126126 30 75 29
0.6844064 0.0045027733 0.22472346 15 60 13
0.6846888 0.00016212463 0.22689712 15 66 13
0.684746 0.007946968 0.20649314 18 59 17
0.6844325 0.0027639866 0.2092936 15 62 14
0.6847056 0.007536888 0.20343852 17 58 16
0.68446326 0.0024511814 0.2061739 15 62 14
0.6852391 0.010041714 0.21836019 25 70 25
0.68436646 0.00409317 0.22168744 15 62 13
0.6848706 0.008826971 0.2125516 20 63 19
0.6843709 0.0033900738 0.21552396 16 64 14
0.6847861 0.008356571 0.2095455 19 60 18
0.6844015 0.0030770302 0.21241021 16 63 14
0.68505466 0.009433746 0.21545732 22 66 21
0.68434 0.0037019253 0.21863544 16 64 14
0.68560743 0.01125598 0.22416091 36 82 35
0.68444705 0.0049118996 0.22775698 15 59 13
0.68465793 0.0004749298 0.22999513 15 66 13
0.68774366 0.01614952 0.19478905 80 113 83
0.6846651 0.0071263313 0.2003814 17 59 16
0.68449414 0.0021374226 0.20305204 16 63 14
0.6856967 0.011549711 0.18127418 39 86 38
0.6844623 0.0050697327 0.18506002 15 53 14
0.684649 0.0005660057 0.18740094 14 60 13
0.6855109 0.010937452 0.17834187 34 79 33
0.68442225 0.004658699 0.181988 13 49 13
0.68468 0.00025081635 0.18426263 14 60 12
0.6858821 0.01216054 0.18420517 44 92 44
0.6845033 0.005482197 0.18812859 16 57 15
0.68461823 0.00088095665 0.19053626 15 61 13
0.6846248 0.0067162514 0.19732141 18 62 16
0.68452513 0.0018236637 0.19992733 15 62 14
0.6870191 0.014794111 0.19240451 65 104 67
0.6862956 0.013440371 0.19001949 57 99 58
0.68458414 0.0063052177 0.19425976 17 61 16
0.6845559 0.001509428 0.19680023 15 61 13
0.686067 0.0127699375 0.1871357 49 96 50
0.68454385 0.0058939457 0.19119537 17 58 15
0.684587 0.0011951923 0.19367003 15 61 13
0.68514025 0.009714842 0.1724701 26 65 26
0.6843406 0.003832817 0.17583811 14 53 13
0.68532526 0.01032567 0.17540729 29 72 29
0.68438137 0.004245758 0.17891407 13 50 12
0.68495476 0.00910306 0.16953146 23 61 23
0.68435967 0.0035014153 0.17269897 15 58 14
0.6848043 0.0085392 0.16655481 22 61 21
0.68439066 0.0031864643 0.1695441 16 62 15
0.6847639 0.008127451 0.16346419 21 61 20
0.68442154 0.0028715134 0.16638696 17 64 15
0.686664 0.014128923 0.14634168 65 95 68
0.68460083 0.006474018 0.15107739 16 52 16
0.6845461 0.0016083717 0.15373087 15 59 13
0.6846415 0.0068876743 0.15417767 18 55 17
0.6845151 0.0019245148 0.15689874 15 59 14
0.684723 0.007714033 0.16037142 20 60 20
0.68445253 0.0025560856 0.1632272 17 65 15
0.68615973 0.013076067 0.14370787 60 90 63
0.68456006 0.006059885 0.14797425 15 48 15
0.6845772 0.0012922287 0.15055943 14 58 13
0.68739426 0.015495062 0.14874089 72 101 75
0.68812263 0.0168581 0.15114284 79 108 82
0.6846825 0.0073013306 0.1572758 19 58 19
0.68448365 0.002240181 0.16006482 16 61 14
0.6859734 0.012461662 0.14074397 55 87 57
0.6845194 0.005645275 0.14486885 15 48 14
0.68460846 0.0009756088 0.14738548 14 58 13
0.6854136 0.010615826 0.13184273 40 80 41
0.68439674 0.004400015 0.13553834 16 56 15
0.6847019 2.3126602e-05 0.1378479 14 61 13
0.6852268 0.010000229 0.12887192 36 77 36
0.6843556 0.003984213 0.13242328 16 58 15
0.6850399 0.009383917 0.12589943 30 70 30
0.6843482 0.0036141872 0.12927103 16 61 15
0.68560016 0.011230946 0.13481236 46 82 47
0.6844375 0.004815817 0.13865101 16 54 15
0.6846708 0.00034093857 0.14103007 14 60 13
0.68485284 0.00876689 0.12292516 26 64 26
0.68437946 0.0032975674 0.12607491 17 63 15
0.6857867 0.0118460655 0.13777947 50 84 52
0.6844785 0.005230427 0.14176142 16 52 15
0.68463945 0.0006580353 0.14420938 14 59 13
0.68478155 0.008309603 0.11982715 23 61 23
0.6844108 0.0029804707 0.12287593 16 61 15
0.68465865 0.0070619583 0.11042249 20 58 19
0.68450475 0.0020272732 0.11326361 16 62 15
0.6847 0.007478237 0.11356008 21 60 20
0.6844733 0.0023453236 0.116470814 16 61 15
0.6847408 0.007894039 0.11669481 22 60 21
0.68444204 0.0026631355 0.11967504 16 61 15
0.6845765 0.0062282085 0.10414088 18 58 17
0.68456733 0.0013899803 0.106841326 17 66 15
0.68703854 0.01482892 0.10202372 92 119 97
0.6846175 0.0066452026 0.107283115 19 58 18
0.68453574 0.0017080307 0.110054374 16 64 15
0.68463016 0.0007517338 0.10040736 16 66 15
0.6845355 0.005810976 0.100996375 18 60 17
0.6845987 0.0010709763 0.103625655 17 66 15
