ply
format ascii 1.0
element vertex 1027
property float x
property float y
property float z
property uchar red
property uchar green
property uchar blue
end_header
-0.013657808 0.03274393 0.8780528 185 180 180
-0.011839688 0.03118372 0.87826073 185 179 180
-0.0099592805 0.029778719 0.8784046 185 179 179
-0.008041084 0.028469086 0.87850916 184 178 179
-0.0060605407 0.027312279 0.87855005 183 178 178
-0.004043877 0.02624464 0.8785543 182 176 176
-0.0019646287 0.025328875 0.8784953 182 176 176
0.00021100044 0.024646044 0.8783394 182 176 176
0.0024185777 0.024038792 0.87815213 181 174 175
0.0046464205 0.023477316 0.8779453 179 173 174
0.006880045 0.022927284 0.8777335 179 173 174
0.009151459 0.022465706 0.87748486 179 173 173
0.0114248395 0.02200532 0.8772355 178 172 172
0.013730466 0.021619081 0.87695503 177 171 171
0.016050637 0.021263123 0.8766615 176 170 171
0.018414438 0.021007538 0.87632596 175 170 170
0.02077651 0.020743608 0.8759933 174 168 169
0.023181915 0.020577908 0.87561965 175 169 169
0.025589705 0.020412445 0.8752453 173 168 168
0.028034687 0.020329952 0.874836 173 167 168
0.030514002 0.020323038 0.87439466 173 167 168
0.03308177 0.02051735 0.8738688 171 165 166
0.03587669 0.021234274 0.8731235 168 162 162
0.03889686 0.022465229 0.87216216 162 157 157
0.042179883 0.024293184 0.8709498 156 150 152
0.045832634 0.026961327 0.86938393 138 132 134
0.049222767 0.029004812 0.86807853 119 114 115
0.050958097 0.027225733 0.8683762 133 128 129
0.052691758 0.02544713 0.86867416 154 148 149
0.054424644 0.02366972 0.8689717 163 158 159
0.05615574 0.02189231 0.8692696 165 159 159
0.057885647 0.020115376 0.8695675 165 159 160
0.05961436 0.018339634 0.8698652 165 160 160
0.061355412 0.01659584 0.87014973 166 161 162
0.06311846 0.014905453 0.87041235 167 162 163
0.064881265 0.013216734 0.8706742 168 163 163
0.04509169 0.019908428 0.8670664 157 152 153
0.049474716 0.024238348 0.8647898 138 133 135
0.05557072 0.032470703 0.860864 118 114 116
0.055289865 0.026061296 0.8631172 119 115 118
0.05662775 0.023374557 0.8637999 130 126 129
0.05821383 0.021261692 0.8642407 139 134 137
0.05986643 0.019304276 0.86461616 148 143 146
0.06155497 0.017433167 0.86495537 155 150 152
0.06326771 0.015621185 0.86527014 159 153 156
0.06499618 0.013848305 0.8655684 162 156 158
0.06672335 0.012076139 0.8658668 163 158 159
0.06844944 0.010305166 0.8661649 164 158 159
0.070174634 0.008535385 0.86646277 164 158 160
0.07189894 0.0067670345 0.8667602 164 159 160
0.07362121 0.004998684 0.8670583 165 159 160
0.07534218 0.0032298565 0.86735654 165 159 161
0.07706195 0.001462698 0.8676544 166 160 161
-0.016347885 0.032452345 0.87622166 185 179 180
-0.014610469 0.030691862 0.87651336 185 180 180
-0.012823343 0.02905798 0.8767528 185 179 180
-0.010982931 0.027558327 0.8769366 185 180 180
-0.009108007 0.02614522 0.8770847 184 179 179
-0.007195294 0.024826765 0.87719345 184 178 179
-0.0052301288 0.023637056 0.8772486 183 177 178
-0.0032096505 0.022583246 0.8772475 183 178 178
-0.001106739 0.021728277 0.87716305 183 177 177
0.0010910034 0.02110219 0.8769834 182 176 176
0.0032947063 0.020488024 0.87679845 181 175 176
0.005525708 0.019937038 0.87658703 180 175 175
0.0077725053 0.019421577 0.8763609 180 174 174
0.010041058 0.018954754 0.8761137 179 173 174
0.01233089 0.018535852 0.87584645 178 173 173
0.014632702 0.018142223 0.8755684 178 172 172
0.016972065 0.017834425 0.87525415 176 171 171
0.019321978 0.01754713 0.87493104 176 170 170
0.02170074 0.01732421 0.8745807 175 170 170
0.024112523 0.017174482 0.8741994 175 169 169
0.026526093 0.01702404 0.87381786 174 168 169
0.0289917 0.016991138 0.8733868 174 168 168
0.031470835 0.016984224 0.87294436 173 167 168
0.034128666 0.017388105 0.872329 170 164 165
0.03704077 0.018375874 0.8714681 167 161 163
0.040166914 0.019848824 0.8704024 162 156 157
0.043632686 0.022093773 0.8690109 157 151 152
0.04758823 0.025450945 0.86715055 137 131 133
0.051056087 0.027663708 0.86576986 119 115 116
0.052782893 0.025865078 0.8660765 125 120 122
0.054516733 0.024086475 0.86637527 142 136 138
0.056249678 0.022308826 0.8666735 152 147 149
-0.023272216 0.058106422 0.8686705 160 154 155
-0.023950279 0.0502007 0.8715019 167 161 162
-0.023467958 0.045245886 0.8731137 173 166 167
-0.022355378 0.041891098 0.87406415 185 180 180
-0.021046162 0.039039373 0.87480664 187 182 182
-0.019575655 0.036599636 0.87537915 188 183 183
-0.017997801 0.03443384 0.87583846 187 181 181
0.028375685 0.01021266 0.8709874 175 170 170
0.030851841 0.010205746 0.87054324 174 168 169
0.033456802 0.010492563 0.86997455 172 166 167
0.036325097 0.011383295 0.86915046 169 163 163
0.039415956 0.012778282 0.86811227 165 158 160
0.04282409 0.014892817 0.8667692 161 156 157
0.0466637 0.017983675 0.8650117 155 150 152
0.051665843 0.023719788 0.8621329 136 132 134
0.05724746 0.030748367 0.8587048 115 112 116
0.060248256 0.03184247 0.8577865 116 113 117
0.065000474 0.03691387 0.85518205 125 122 125
0.06977856 0.04201269 0.8525636 127 125 129
0.06714797 0.01321435 0.8629606 132 129 133
0.068721354 0.011095047 0.86340714 143 139 143
0.07034683 0.009098053 0.863802 153 148 151
0.072027445 0.0072278976 0.86414313 159 154 157
0.07372612 0.0054028034 0.86446583 165 160 162
0.07544923 0.003635645 0.8647639 170 164 166
0.07717097 0.0018687248 0.8650622 171 165 167
0.078891695 0.00010347366 0.8653602 169 163 165
-0.024237633 0.05633688 0.86458373 160 154 156
-0.025123775 0.047903776 0.86764926 163 157 158
-0.0250144 0.042011738 0.86965954 169 163 163
-0.023990154 0.03843808 0.8707062 186 180 180
-0.022725284 0.03547907 0.8714977 187 181 181
-0.021319449 0.0328815 0.87213904 187 182 183
-0.019811869 0.030545712 0.872672 188 183 183
-0.018215477 0.028436422 0.8731109 187 182 182
-0.01655668 0.026486874 0.8734836 186 181 181
-0.014835477 0.02469635 0.87379014 186 180 181
-0.013058305 0.023046732 0.87403786 186 180 180
-0.011253238 0.021469116 0.87425584 187 181 181
-0.009420276 0.01996231 0.87444454 186 180 180
-0.0075325966 0.018591642 0.8745764 185 180 180
-0.005611658 0.017303467 0.8746738 185 180 180
-0.0036368966 0.016146898 0.87471616 185 179 179
-0.0015714765 0.015209675 0.8746665 184 178 178
0.0006031394 0.014535904 0.8745066 183 178 178
0.0027953982 0.013902426 0.8743293 182 177 177
0.0050189495 0.013341665 0.87412167 182 176 177
0.007253051 0.012803555 0.87390417 181 175 176
0.0095178485 0.012336016 0.8736567 181 175 175
0.011785984 0.011873007 0.8734072 181 175 175
0.014083266 0.011476755 0.87312955 180 174 174
0.016404212 0.01113224 0.8728296 179 173 173
0.018749774 0.010842323 0.8725064 179 173 173
0.021113396 0.01059103 0.8721668 178 172 173
0.023520648 0.010437965 0.87178534 177 171 171
0.025929153 0.010283232 0.8714044 176 170 171
0.057981312 0.020532846 0.8669716 159 154 155
0.059712112 0.01875782 0.8672695 162 156 157
0.06144148 0.016983747 0.8675674 163 157 158
0.0631699 0.015210867 0.86786497 163 157 158
0.064896524 0.01343751 0.8681631 163 158 159
0.06662196 0.011664629 0.86846113 164 158 160
0.06834626 0.009893417 0.8687589 164 159 160
0.07006931 0.008122921 0.86905676 166 160 161
0.071796834 0.0063660145 0.8693488 166 160 162
0.07355505 0.004680395 0.86961126 167 162 163
0.075312376 0.0029964447 0.8698731 168 163 164
0.07706863 0.0013129711 0.8701351 169 164 165
0.014967978 0.007977724 0.8717636 180 175 175
0.017292261 0.007643223 0.8714587 180 174 174
0.019647121 0.0073769093 0.87112504 179 173 173
0.022022665 0.007155657 0.8707719 178 172 172
0.024428189 0.0069994926 0.8703909 177 171 171
0.026850581 0.006878853 0.8699947 176 170 170
0.029304385 0.006825447 0.86956924 175 169 170
0.031790733 0.0068433285 0.8691136 174 168 168
0.03448385 0.007334709 0.8684569 171 165 166
0.037424624 0.008391142 0.8675602 168 163 163
0.040629983 0.0100467205 0.86640877 165 160 160
0.04414791 0.012407541 0.8649572 162 156 157
0.0482527 0.01609683 0.8629404 153 148 149
0.05713308 0.030693054 0.8562924 135 131 134
0.06027502 0.03210759 0.85523564 117 114 119
0.06502998 0.03718233 0.8526228 110 108 113
0.07766855 0.0031354427 0.862099 129 126 130
0.079205215 0.00095772743 0.8625735 136 132 136
-0.024242103 0.043626785 0.871387 171 165 165
-0.023163795 0.04018736 0.872375 186 180 181
-0.021882534 0.037267208 0.87314796 186 181 181
-0.020450056 0.034734726 0.87376076 189 183 183
-0.0188964 0.032511234 0.8742455 188 182 182
-0.017264664 0.030486345 0.87464774 186 181 181
-0.015576243 0.028608084 0.8749896 186 181 181
-0.013825953 0.026885986 0.8752665 185 179 180
-0.012034297 0.025269032 0.87549984 185 179 180
-0.010191023 0.023782015 0.8756794 185 180 180
-0.008300006 0.02241373 0.8758095 185 179 179
-0.0063816905 0.021113873 0.87591106 184 179 179
-0.0044187307 0.019923925 0.87596697 184 179 179
-0.002385676 0.018904686 0.8759516 184 178 178
-0.00024074316 0.018155098 0.87582326 183 177 178
0.0019549131 0.017526865 0.8756441 182 176 176
0.0041676164 0.016937017 0.8754489 181 176 176
0.006393194 0.01637578 0.8752414 181 175 175
0.008651495 0.015890121 0.8750022 180 175 175
0.010915101 0.015414238 0.8747584 180 174 174
0.0132128 0.015016079 0.874482 179 174 174
0.01551801 0.01463294 0.87419903 178 173 173
0.017861485 0.014336348 0.8738794 178 172 172
0.020215392 0.014060497 0.87355083 177 171 172
0.02261132 0.013879299 0.8731821 176 170 170
0.02502191 0.013727903 0.8728004 176 169 170
0.0274477 0.01360774 0.8724054 175 169 169
0.029921412 0.013594389 0.87196493 174 168 169
0.032433152 0.013664246 0.8714892 173 166 167
0.035222292 0.014373064 0.8707439 170 164 164
0.038232505 0.015585184 0.86978596 166 160 161
0.041504204 0.017390013 0.8685772 161 156 156
0.002283454 0.007303238 0.87188226 184 178 178
0.004497111 0.0067272186 0.87168056 183 177 178
0.0067197084 0.006169796 0.87147075 182 177 177
0.008982241 0.0057046413 0.8712216 182 177 177
0.011246204 0.0052394867 0.8709723 182 176 176
0.0135343075 0.00482893 0.8706997 181 175 175
0.015852988 0.0044867992 0.8703978 180 175 175
0.018183708 0.004169464 0.8700854 180 174 174
0.020543933 0.0039174557 0.8697447 179 173 174
0.022932053 0.0037267208 0.8693778 178 172 173
0.025338411 0.0035743713 0.8689943 176 171 171
0.027780771 0.0035009384 0.86857694 176 170 170
0.030243099 0.003468752 0.8681417 175 169 170
0.03277588 0.0035943985 0.86763895 173 167 168
0.03555888 0.0042932034 0.8668927 171 166 166
0.038555562 0.0054752827 0.86593986 169 163 164
0.041873515 0.0073854923 0.8646767 166 160 161
0.045515776 0.010024309 0.86310256 161 156 157
0.04993564 0.014424324 0.8607775 156 151 154
0.060301602 0.032372236 0.85268205 143 140 143
-0.024708629 0.055481434 0.8625275 157 151 153
-0.025699556 0.04678297 0.86571157 163 157 157
-0.025765836 0.04044962 0.86791146 168 161 162
-0.024809718 0.03670597 0.86903185 185 180 180
-0.02358514 0.033647776 0.8698669 187 181 182
-0.022213578 0.030966759 0.87054485 187 182 182
-0.020732403 0.028567553 0.8711059 188 183 183
-0.019159377 0.026402712 0.87156934 187 182 182
-0.017521203 0.024405003 0.87196344 187 182 182
-0.015835226 0.022530079 0.8723061 187 181 182
-0.014106631 0.02076435 0.87260354 186 181 181
-0.012339771 0.019096375 0.87286025 186 181 181
-0.01052016 0.01756072 0.8730618 186 180 181
-0.008678198 0.016082048 0.8732395 186 180 180
-0.006802678 0.0146873 0.8733823 186 180 180
-0.0048593283 0.013458729 0.8734552 185 179 179
-0.0028617382 0.012362242 0.8734728 185 179 179
-0.0007468462 0.011549234 0.8733712 184 178 178
0.0014436245 0.01091671 0.87319374 183 178 178
0.0036471486 0.010312796 0.8730037 183 177 177
0.0058689117 0.009750605 0.8727963 182 176 177
0.008118272 0.009251595 0.87256205 182 176 176
0.010383248 0.008786917 0.8723131 182 176 176
0.012656689 0.008339167 0.8720566 181 175 175
-0.023766518 0.057192087 0.86663944 160 155 156
-0.024544418 0.04903388 0.8695832 165 158 159
-0.02579856 0.053732157 0.85601354 134 129 132
-0.027371585 0.04355979 0.8598414 168 162 163
-0.02773118 0.036486864 0.86236936 165 158 159
-0.027312577 0.031397343 0.8640648 179 173 173
-0.026209712 0.02804041 0.8650325 184 179 179
-0.02493161 0.025132895 0.865812 186 181 181
-0.023538351 0.022521734 0.866467 186 181 181
-0.02205658 0.020138264 0.86702675 186 181 181
-0.020492733 0.017965078 0.8674984 187 181 181
-0.025512338 0.054120302 0.85826755 143 138 140
-0.02682978 0.044595003 0.8618145 167 161 162
-0.02711165 0.037718534 0.8642535 165 158 159
-0.026470482 0.033186913 0.86571056 182 177 177
-0.025326312 0.029931307 0.86663294 186 180 180
-0.024013698 0.027107477 0.867375 188 183 183
-0.022592306 0.02456379 0.868 187 182 182
-0.021088421 0.02223301 0.868536 187 181 181
-0.019514084 0.020082712 0.8689965 186 181 181
-0.017875016 0.018098116 0.8693877 187 181 181
-0.016194701 0.016219854 0.8697346 187 182 182
-0.014480531 0.014429092 0.8700448 188 182 182
-0.012732327 0.012725592 0.87031853 187 181 181
-0.010946512 0.011117458 0.87055236 187 181 181
-0.027091622 0.026153088 0.86343247 184 178 179
-0.02584368 0.023172379 0.8642449 186 180 180
-0.02447617 0.02049923 0.8649279 186 181 181
-0.023020267 0.018054485 0.86551535 186 181 181
-0.021503866 0.015766859 0.8660367 187 181 182
-0.019929945 0.013627529 0.8664959 188 182 182
-0.018313706 0.01159811 0.86690897 188 183 183
-0.016646326 0.009699106 0.86726713 188 183 183
-0.014942765 0.007893324 0.8675862 188 182 182
-0.013205886 0.0061736107 0.86786914 187 182 182
-0.011433959 0.004541874 0.868115 186 181 181
-0.009599566 0.0030651093 0.8682952 186 181 181
-0.0077291727 0.00167799 0.8684377 186 181 181
-0.005800307 0.00043320656 0.8685197 186 181 181
-0.009122252 0.009605885 0.8707457 187 181 181
-0.007245183 0.008224487 0.8708842 186 180 181
-0.0053300858 0.0069372654 0.870983 185 180 180
-0.0033456087 0.0058181286 0.8710111 185 180 180
-0.0012527704 0.004960537 0.87092835 185 179 179
0.0009338856 0.004327297 0.8707509 184 179 179
0.0031281114 0.0037095547 0.8705667 183 178 178
0.0053512454 0.0031588078 0.8703537 183 178 178
0.0075917244 0.0026462078 0.87012446 183 177 178
0.009856164 0.0021882057 0.869872 182 176 177
0.012128115 0.0017445087 0.8696132 182 176 176
0.014440298 0.0013926029 0.8693151 181 175 175
0.01676184 0.0010590553 0.86900896 180 175 175
0.019107342 0.00077843666 0.8686801 180 174 174
0.021474779 0.00054454803 0.86833096 179 173 173
0.023877561 0.00038933754 0.867948 178 173 173
0.026293516 0.0002603531 0.86755395 177 171 171
0.028743446 0.00020503998 0.8671279 176 170 170
0.031214356 0.0001938343 0.86668277 175 169 170
0.03380972 0.00046420097 0.866117 174 168 168
0.03664267 0.0012762547 0.86532015 172 167 167
0.039714217 0.0026278496 0.8642926 171 165 166
0.04308635 0.0046565533 0.8629751 168 163 163
0.046910048 0.0077035427 0.8612223 166 161 163
0.051813662 0.013195038 0.85842425 165 161 164
0.068296194 0.045024395 0.84437615 146 144 149
-0.018893898 0.015883923 0.8679316 187 182 182
-0.017248034 0.01392436 0.86831397 188 182 183
-0.015567064 0.012055397 0.8686581 188 182 183
-0.013839126 0.0103058815 0.86895233 187 182 182
-0.0120693445 0.008662224 0.8692022 187 181 182
-0.010267496 0.0070996284 0.86941767 186 181 181
-0.008428514 0.0056302547 0.8695942 186 181 181
-0.006534457 0.004296303 0.8697134 186 180 180
-0.0045847297 0.0030975342 0.86977553 186 180 180
-0.0025436282 0.002120018 0.8697438 185 180 180
-0.00039362907 0.0014033318 0.86960155 185 179 179
0.0017952919 0.00077819824 0.8694204 184 179 179
0.004009068 0.00021004677 0.8692147 184 178 178
0.044310987 0.0019578934 0.8612624 171 165 166
0.04831332 0.005404234 0.8593332 170 166 167
0.054068685 0.012820005 0.85570306 166 162 165
0.049789965 0.0032725334 0.8573729 170 166 168
0.06992102 0.043330908 0.8397137 148 145 150
-0.026077628 0.053361893 0.8537504 127 123 126
-0.027913153 0.042524576 0.8578683 170 164 166
-0.028351486 0.035253525 0.8604862 165 158 159
-0.028113604 0.029711008 0.86237735 176 171 171
-0.025125444 0.05476308 0.8604137 151 146 148
-0.026277483 0.04565668 0.86377656 164 158 159
-0.026478052 0.038984776 0.8661236 166 160 160
-0.025638223 0.03495097 0.8673684 184 179 179
-0.024461627 0.031774998 0.8682552 187 181 181
-0.02312553 0.029007912 0.8689713 188 182 182
-0.021660924 0.026569366 0.86955035 188 183 183
-0.020108998 0.024354935 0.8700359 187 182 182
-0.018510997 0.02225995 0.8704718 187 181 182
-0.016852856 0.020319939 0.8708432 187 182 182
-0.015162408 0.018463612 0.87117976 187 182 182
-0.013403654 0.016778946 0.87144434 187 181 182
-0.011622608 0.015152693 0.87168473 186 181 181
-0.009807229 0.013612747 0.8718889 186 180 180
-0.007952809 0.012170076 0.87205243 186 180 180
-0.00606066 0.010821581 0.87217647 185 180 180
-0.00410825 0.009620428 0.8722386 185 179 179
-0.0020599961 0.00865078 0.8722031 184 179 179
9.417534e-05 0.007936001 0.87206006 184 179 179
0.053423405 0.00055217743 0.852786 158 154 158
-0.025775135 0.05479884 0.84829813 118 114 118
-0.02903223 0.04036498 0.85396016 171 165 166
-0.029581726 0.032812357 0.8567106 165 158 159
-0.029568613 0.026705742 0.8588505 172 165 166
-0.028829098 0.022443771 0.86021 185 180 180
-0.027669847 0.019245863 0.86111915 186 180 181
-0.026371002 0.016407251 0.8618764 186 181 181
-0.024971604 0.0138270855 0.8625246 187 182 182
-0.023513496 0.011400461 0.8631082 189 183 183
-0.021987557 0.009148359 0.863618 189 183 184
-0.020415068 0.0070176125 0.8640767 188 183 183
-0.018809319 0.0049746037 0.86449856 188 183 183
-0.017156422 0.0030522346 0.8648696 187 182 182
-0.015459895 0.0012412071 0.8651935 187 182 182
0.051444292 0.0015454292 0.85523844 171 167 169
-0.026142418 0.05353403 0.85125697 121 117 121
-0.028473556 0.041442633 0.85591507 172 166 167
-0.028971612 0.034020185 0.8586035 165 159 160
-0.028884113 0.028100729 0.860659 175 168 169
-0.027966082 0.024284124 0.8618263 185 179 179
-0.026750028 0.02122593 0.8626737 186 180 180
-0.025418103 0.01846695 0.8633951 186 181 181
-0.023993254 0.015947342 0.864016 186 181 181
-0.022501826 0.013600588 0.86456394 188 182 182
-0.020951688 0.011405468 0.8650481 189 183 183
-0.019371986 0.009289503 0.8654993 188 183 183
-0.017719746 0.0073571205 0.86587286 189 183 183
-0.016053498 0.0054631233 0.8662302 188 182 182
-0.0143331885 0.003706932 0.86653 187 181 181
-0.012574613 0.002046585 0.8667887 186 181 181
-0.010764003 0.0005159378 0.8669927 187 181 181
0.07310134 0.034005404 0.8324758 139 136 141
0.075374424 0.033382177 0.8322759 121 119 125
-0.030111969 0.03830409 0.85001004 164 158 160
-0.030777276 0.030457973 0.8528996 165 159 160
-0.030821085 0.024208546 0.8551114 168 162 163
-0.030492008 0.018919706 0.85691553 183 178 178
-0.02946812 0.015387535 0.8579721 187 182 182
-0.028242946 0.012369871 0.85881007 187 182 182
-0.026907742 0.009635687 0.8595278 188 182 182
-0.025495946 0.007099867 0.8601614 188 183 183
-0.024032652 0.0046994686 0.86073774 188 183 183
-0.022522211 0.0024220943 0.8612621 188 182 182
-0.02095133 0.000300169 0.8617203 188 182 182
-0.030058742 0.008471727 0.85569274 186 181 181
-0.028795898 0.005562067 0.8564897 186 181 180
-0.02744615 0.002878189 0.85719043 188 182 182
-0.02601844 0.000395298 0.85780567 188 183 182
0.07465595 0.031952858 0.83042985 122 119 124
-0.031222403 0.036165953 0.84609306 160 155 157
-0.032003224 0.028027534 0.84912235 169 163 164
-0.032084882 0.0216825 0.85138637 171 164 165
-0.031861782 0.016128778 0.85331345 175 170 170
-0.03120488 0.011682034 0.8547677 186 181 182
-0.030651808 0.037273407 0.8480351 161 156 157
-0.031385064 0.029255867 0.8510053 166 160 161
-0.031453133 0.022944927 0.85324895 169 163 163
-0.031219363 0.017418146 0.8551596 179 174 174
-0.03035158 0.013497353 0.85638505 187 182 183
-0.029156446 0.010407209 0.85725635 187 181 181
-0.02786243 0.0075728893 0.8580189 187 181 182
-0.026483834 0.004957676 0.85868835 188 183 183
-0.025047243 0.0024938583 0.8592935 188 183 183
-0.023542643 0.00020575523 0.85982406 187 182 182
-0.03177941 0.035092115 0.8441369 162 156 158
-0.032620966 0.026800156 0.84723973 171 165 166
-0.032716513 0.020419836 0.8495247 173 167 167
-0.03248763 0.014880657 0.8514502 174 168 169
-0.0320071 0.00999403 0.85309726 184 178 179
-0.030942142 0.0065829754 0.8541112 185 179 179
-0.029710352 0.00359869 0.8549426 185 180 180
-0.028380334 0.00086832047 0.85566527 187 181 182
-0.033524573 0.03168392 0.8383492 163 158 160
-0.034467995 0.023132801 0.8415875 176 171 172
-0.034567297 0.016742468 0.8438941 176 170 170
-0.034336805 0.011207342 0.8458328 176 170 171
-0.033903778 0.0062019825 0.8475437 176 170 170
-0.033340216 0.0015435219 0.84910613 178 172 172
-0.032939196 0.032829285 0.8402742 164 158 160
-0.033856213 0.024345636 0.8434754 176 170 171
-0.033950567 0.01796794 0.8457707 176 170 170
-0.033731163 0.012404919 0.84771657 176 170 170
-0.033313096 0.0073623657 0.8494391 177 171 172
-0.032615483 0.003037691 0.85085326 181 175 176
0.05620885 0.0013773441 0.84954333 145 142 146
-0.032354176 0.033973217 0.8421998 163 157 159
-0.03323853 0.025573015 0.84535724 174 168 169
-0.03333378 0.019193172 0.84764767 175 169 170
-0.033109367 0.013643026 0.84958297 175 168 169
-0.03270459 0.008567095 0.85131574 180 174 175
-0.03179401 0.0047729015 0.8524976 184 178 178
-0.030606091 0.0016813278 0.85337734 185 179 179
-0.02957207 0.039334297 0.85198504 168 162 164
-0.030179441 0.03163576 0.8548047 165 159 159
-0.030192673 0.025462627 0.8569783 170 164 164
-0.029693425 0.020599365 0.8585969 185 179 180
-0.028575003 0.017301798 0.8595509 187 181 181
-0.027303755 0.0143966675 0.86033875 187 182 182
-0.025942504 0.01172471 0.861028 188 182 183
-0.024509132 0.009239674 0.8616381 188 183 183
-0.023005724 0.0069351196 0.86217177 188 183 183
-0.021473825 0.0047073364 0.8626734 188 183 183
-0.019892931 0.0026066303 0.8631212 187 182 182
-0.018255591 0.0006494522 0.86350816 187 182 182
-0.034115553 0.030524254 0.8364305 163 158 160
-0.035076737 0.021927834 0.8396968 177 171 172
-0.03518319 0.015519381 0.84201705 176 170 171
-0.034928024 0.010045767 0.84393376 177 171 171
-0.034487367 0.0050594807 0.84564084 177 172 172
-0.03391868 0.0004131794 0.84720165 175 170 170
-0.0353114 0.028170347 0.83260924 163 157 159
-0.036270976 0.01957655 0.8358908 176 171 172
-0.034713507 0.02934742 0.83451986 162 157 159
-0.035687506 0.020718098 0.8378085 176 171 171
-0.035794675 0.014307022 0.84013563 176 171 171
-0.035518944 0.00888443 0.84203494 177 171 172
-0.03506428 0.0039331913 0.8437311 178 172 173
-0.03637135 0.013182402 0.83821654 176 171 171
-0.03610784 0.0077290535 0.84013414 177 171 172
-0.03563553 0.002821207 0.8418154 179 173 174
-0.035889685 0.027042389 0.83067757 162 157 159
-0.03686011 0.018420458 0.8339796 177 172 173
-0.036944687 0.012065649 0.8362938 176 170 171
-0.03666836 0.006643772 0.8382025 178 171 172
-0.036176383 0.0017852783 0.83986676 179 173 173
-0.036986887 0.024936914 0.82674915 160 155 157
-0.038012683 0.016174078 0.8301294 179 173 174
-0.038069367 0.009888172 0.8324252 176 170 171
-0.037760615 0.004546404 0.8343079 177 171 171
-0.036480606 0.025882721 0.82876 161 156 158
-0.03745067 0.017261505 0.83207005 178 173 174
-0.037517607 0.010950327 0.8343711 176 170 171
-0.03722483 0.005569458 0.8362665 177 171 171
-0.03670478 0.000780344 0.8379043 178 172 173
-0.03749466 0.023987532 0.8247393 160 154 156
-0.0385651 0.015110493 0.8281783 178 173 174
-0.038605213 0.008865833 0.8304618 176 170 171
-0.038271487 0.0035860538 0.8323219 176 170 171
-0.038493693 0.02213049 0.82070106 158 153 156
-0.039588273 0.013189316 0.8241853 178 172 173
-0.039613485 0.006980419 0.82646406 175 169 170
-0.039257288 0.0017549992 0.8283094 176 169 170
-0.03897363 0.021251678 0.81865954 158 152 155
-0.04007691 0.0122869015 0.82216275 177 172 173
-0.040103972 0.006072283 0.8244497 174 169 169
-0.03973168 0.0008866787 0.82628196 175 169 170
-0.0380646 0.022881031 0.8227988 159 154 156
-0.039090157 0.01411581 0.82619685 178 173 174
-0.03912294 0.007888794 0.82847804 176 170 171
-0.038768232 0.0026609898 0.83032 176 171 171
-0.039428294 0.020436287 0.8165894 156 151 153
-0.040531754 0.011469841 0.82010216 177 171 173
-0.04056418 0.0052399635 0.82240134 174 168 169
-0.04017216 0.00010275841 0.82421654 175 169 170
-0.039861143 0.019676685 0.8144941 157 151 154
-0.040985227 0.01065588 0.8180396 177 172 173
-0.041010916 0.0044412613 0.82033736 174 168 169
-0.040217698 0.019110203 0.81231195 156 151 154
-0.041417062 0.009896755 0.815952 178 172 173
-0.041434467 0.0037016869 0.8182468 173 167 168
-0.041146815 0.017430067 0.8081898 156 152 154
-0.0422377 0.008487225 0.81172633 176 170 171
-0.042242408 0.0023207664 0.81401944 171 165 166
-0.0420416 0.015837193 0.8040267 154 149 152
-0.04306549 0.007060051 0.80750585 174 168 169
-0.043014705 0.0010299683 0.8097484 169 163 164
-0.04265052 0.0077762604 0.8096153 175 169 170
-0.04263884 0.0016496181 0.81189597 170 164 165
-0.041595638 0.016630411 0.8061101 156 150 153
-0.040718734 0.01817751 0.81029254 156 151 154
-0.041852593 0.009128809 0.8138681 177 171 173
-0.04184729 0.0029888153 0.81614345 172 166 167
-0.04242599 0.015200615 0.80187213 154 149 152
-0.043403864 0.006537199 0.8053082 173 168 169
-0.04336959 0.00046348572 0.80757594 168 163 164
-0.043194354 0.01392889 0.7975596 153 149 151
-0.044127047 0.0053749084 0.80096257 173 167 168
-0.043479443 0.0135445595 0.79528797 153 148 152
-0.04444194 0.0049118996 0.79873466 173 167 168
-0.04281193 0.014560461 0.7997184 154 149 152
-0.043809175 0.005845785 0.80318594 173 167 168
-0.0437575 0.013177633 0.79300654 154 149 151
-0.04473716 0.0044984818 0.79648256 171 165 166
-0.0442155 0.012693167 0.78832483 153 148 150
-0.045260012 0.003843546 0.7918956 168 163 164
-0.04402715 0.012831926 0.79071367 154 148 151
-0.045024335 0.004106045 0.7942196 169 163 164
-0.044468045 0.012391329 0.7860086 151 146 149
-0.04547274 0.0036394596 0.78954315 166 160 162
-0.044888437 0.012003183 0.78127205 147 142 144
-0.045849442 0.0033547878 0.7847755 161 156 157
-0.04519534 0.0119047165 0.776394 149 144 146
-0.0461995 0.003139019 0.7799679 159 153 155
-0.045045316 0.011944771 0.7788384 147 142 144
-0.04592693 0.003493309 0.7822585 159 153 155
-0.045513928 0.012117386 0.768891 147 142 145
-0.04662645 0.0030651093 0.77262414 166 161 162
-0.04548776 0.012867212 0.7635914 143 138 142
-0.04679686 0.0033068657 0.7675804 169 164 165
-0.04534942 0.011853695 0.773952 149 144 147
-0.046343744 0.0031092167 0.7775246 161 155 156
-0.04552251 0.012437344 0.76626873 145 140 143
-0.04672408 0.0031547546 0.7701185 169 163 164
-0.04470557 0.012127638 0.7836735 148 143 146
-0.045680344 0.0034487247 0.7871827 164 158 159
-0.04546559 0.011899233 0.77146316 148 143 146
-0.046487033 0.0030825138 0.7750778 164 158 160
-0.045432687 0.013348818 0.76088643 139 135 139
-0.04686767 0.0034646988 0.7650374 169 163 165
-0.045171916 0.014353275 0.7579317 136 132 136
-0.04689473 0.0037333965 0.76243913 168 162 164
-0.044838846 0.015542269 0.75488484 132 128 133
-0.04690993 0.0040323734 0.75982356 167 162 163
-0.043967783 0.018097162 0.7511853 127 123 128
-0.04692042 0.004343748 0.75719917 167 162 163
-0.04681635 0.005285263 0.75178945 166 160 162
-0.04689324 0.004751444 0.75452614 167 161 163
0.10156453 0.07713294 0.6953863 143 141 145
-0.04671216 0.0058882236 0.7490164 165 159 160
0.09235251 0.05120015 0.6996305 229 228 231
0.09510136 0.051436424 0.6989658 229 228 231
0.09832013 0.05270791 0.6977924 227 226 229
0.102345824 0.0557518 0.6957482 220 219 223
0.108921885 0.064401865 0.6909493 155 152 157
0.11187649 0.06503081 0.690086 110 107 111
0.11493182 0.06587267 0.6891173 114 111 117
-0.04657018 0.006587982 0.7461933 164 158 159
0.096200466 0.06533122 0.69850564 151 147 152
0.09892559 0.06548953 0.6978797 125 121 126
0.10171831 0.065791845 0.697183 119 116 121
0.10535276 0.06795263 0.695578 110 107 113
-0.04638338 0.007401705 0.7433115 161 156 158
-0.04428816 0.014079332 0.73008394 119 116 120
-0.046514034 0.002163887 0.735337 162 156 158
0.08824086 0.042214155 0.7014313 228 227 230
0.09064138 0.041696787 0.7011373 230 229 232
0.09319997 0.041526556 0.70067227 230 229 232
0.09600115 0.041888 0.6999452 231 230 232
0.09920287 0.043125868 0.69878614 230 229 232
0.103019476 0.045704365 0.6969656 216 215 219
0.11420488 0.06444049 0.68718326 167 164 169
0.117346644 0.065461874 0.6861229 127 124 129
0.078160465 0.009031296 0.70377624 225 224 227
0.08013934 0.0076436996 0.70391774 226 226 228
0.082200885 0.0064401627 0.7039678 227 226 229
0.08431196 0.005346775 0.70396316 228 227 230
0.0865252 0.004477024 0.70384705 228 228 230
0.08883417 0.0038158894 0.7036265 229 228 230
0.09125602 0.0033996105 0.703284 228 227 230
0.093808174 0.003263235 0.7028011 228 227 230
0.09651101 0.00344944 0.70215666 229 228 231
0.0994277 0.0040926933 0.7012831 229 228 231
0.10262513 0.0053339005 0.70010984 230 229 231
0.106200576 0.0073781013 0.69853354 232 231 234
0.11068177 0.011355162 0.69598866 227 226 230
0.07861173 0.015649319 0.70361936 224 223 226
0.08059561 0.014261007 0.70376015 226 225 228
0.082628965 0.012983084 0.70384586 227 226 229
0.08477247 0.011949539 0.70381045 228 227 230
0.08699 0.0110788345 0.703694 229 228 230
0.089319706 0.010452986 0.70345545 229 228 231
0.09175503 0.01005578 0.70310307 229 229 231
0.094353914 0.0100131035 0.702574 230 229 232
0.097100616 0.010286331 0.701887 230 229 232
0.10008609 0.011071205 0.7009442 231 230 233
0.10342002 0.012602091 0.6996286 232 231 234
0.10732472 0.015352726 0.6977031 229 228 231
0.11277926 0.021426678 0.6941173 200 199 204
0.09733236 0.033352852 0.7004452 231 230 233
0.10057366 0.03467846 0.69923997 231 230 232
0.10439229 0.03725624 0.69741523 219 218 222
0.111067414 0.04605341 0.69251406 185 182 187
-0.046277583 0.0030994415 0.7323829 162 157 158
0.08188009 0.028392315 0.70303977 223 222 225
0.08393538 0.027137518 0.7031114 228 227 230
0.08610654 0.026140451 0.70305586 227 226 229
0.08837259 0.025352001 0.7028967 228 226 229
0.09078419 0.024883747 0.7025795 228 227 230
0.093298435 0.0246377 0.70215166 229 228 231
0.09603274 0.024870157 0.7014867 230 230 232
0.09901118 0.02563119 0.7005595 232 231 233
0.10236931 0.027212143 0.69922507 232 231 233
0.106505156 0.030472517 0.69705665 225 224 227
0.08485317 0.034841776 0.7024561 226 225 227
0.08702695 0.033836126 0.7024032 229 228 230
0.089362025 0.033187866 0.7021744 228 227 230
0.091822624 0.03281498 0.70180976 229 228 231
0.09441507 0.032728672 0.701303 230 229 232
-0.04612434 0.008398533 0.74033725 157 152 154
-0.046907246 0.00015926361 0.7437861 159 153 155
0.09491396 0.062641144 0.6971973 185 182 187
0.09828198 0.06423712 0.69586766 189 186 191
0.10094416 0.064249754 0.69531095 175 172 176
0.103802085 0.06469011 0.6945442 141 137 142
0.106693625 0.06519675 0.6937444 117 113 117
0.109622836 0.065778255 0.6929072 112 109 115
-0.045746803 0.00969696 0.73721313 151 146 149
-0.046809018 0.00074386597 0.741014 159 154 155
-0.04521787 0.011379719 0.7338979 138 133 137
-0.046661794 0.0014529228 0.738178 161 155 157
0.081172705 0.021169424 0.70347095 227 226 229
0.08320463 0.019876242 0.7035631 227 226 229
0.08535254 0.018840551 0.70352757 227 226 229
0.08759713 0.01801753 0.70338655 228 227 230
0.08994508 0.017420292 0.70313346 229 228 231
0.092421174 0.017102242 0.70274174 229 228 231
0.09507251 0.017163992 0.70216095 230 229 232
0.09793234 0.017675161 0.7013563 231 230 232
0.10101783 0.018669367 0.70031106 231 231 233
0.10464144 0.020822287 0.6986886 231 230 233
0.109187245 0.024957418 0.69607866 213 211 215
-0.04520774 0.0068216324 0.7230458 148 143 146
-0.04354906 0.0116992 0.7156174 122 118 123
-0.045419157 0.0006878376 0.72050095 157 152 153
-0.04508549 0.0018658638 0.71740675 160 154 156
-0.044592857 0.0087172985 0.71960175 136 131 134
-0.04467076 0.00324893 0.7142061 156 151 153
-0.044144273 0.004914999 0.71085966 149 145 147
-0.04600197 0.0041344166 0.72937584 161 155 156
0.11404443 0.0018630028 0.69387925 214 213 217
-0.045668244 0.005317211 0.72629213 156 151 153
-0.043394446 0.0071463585 0.70722663 142 137 141
0.10543907 0.00021266937 0.6989747 230 229 232
0.109506845 0.0033025742 0.6968688 231 230 233
0.11531556 0.010097027 0.69290066 197 195 201
-0.04298663 0.0028924942 0.70121336 151 146 149
-0.04208678 0.010786533 0.70288515 128 124 128
-0.04214269 0.005353689 0.6974455 126 123 127
-0.043560565 0.0011124611 0.70463336 154 149 151
-0.041314125 0.0018172264 0.69359934 123 119 123
0.01636815 0.06524634 0.6278373 68 65 69
0.019524336 0.0539248 0.6319622 127 123 126
0.018725872 0.04574132 0.6356313 181 176 177
0.019100845 0.04040408 0.6378243 184 178 179
0.01975143 0.035747528 0.63966537 182 177 178
0.020474613 0.03128338 0.64140844 181 176 177
0.021257281 0.026978254 0.64307 178 172 173
0.02203226 0.02267313 0.6447334 173 168 169
0.02282989 0.01843834 0.6463618 170 164 165
0.023634434 0.014237642 0.64797425 169 163 164
0.02441597 0.009999514 0.6496074 167 161 163
0.02516228 0.0056962967 0.6512766 158 153 154
0.016268492 0.0653007 0.6251484 73 70 75
0.019020379 0.06562042 0.62439585 67 65 69
0.019360006 0.05381298 0.6293682 118 113 115
0.01772952 0.043629646 0.63408685 183 177 178
0.018117666 0.038326263 0.63626754 184 178 179
0.018794715 0.033735037 0.6380789 181 175 176
0.019590795 0.029446363 0.6397345 180 174 175
0.02040732 0.025223494 0.6413572 177 171 172
0.02123177 0.021036386 0.6429628 174 168 169
0.022042751 0.016835213 0.6445776 170 164 164
0.022866726 0.012680531 0.6461693 167 161 162
0.023671329 0.008497715 0.6477778 167 161 162
0.01938504 0.023059845 0.6398599 176 171 171
0.02024436 0.018957615 0.6414249 173 167 168
0.021101236 0.014867067 0.6429858 170 164 164
0.021946967 0.010765791 0.64455354 165 159 160
0.022803187 0.0067059994 0.6461011 164 158 159
0.023628473 0.0025897026 0.64768004 160 155 156
0.025444865 0.00080370903 0.648038 137 131 132
0.013829887 0.06513643 0.6311351 73 70 75
0.01644218 0.06513071 0.6305555 72 69 73
0.02138561 0.0644238 0.6297554 89 86 90
0.019779265 0.054255247 0.63444066 123 118 121
0.019571543 0.047492027 0.63736546 150 145 146
0.020549417 0.037381172 0.64145076 155 150 151
0.021256685 0.032877922 0.64320993 157 151 153
0.021986008 0.028445482 0.6449337 158 153 154
0.022741795 0.024094343 0.6466174 159 153 154
0.023514748 0.019801378 0.6482724 158 153 153
0.024301767 0.015558004 0.6499028 155 149 150
0.025086403 0.011327028 0.65152884 146 141 143
0.024430335 0.004224777 0.6494348 161 156 157
0.016155541 0.0653224 0.6224737 73 71 75
0.018918872 0.06566715 0.62170625 63 61 64
0.0229128 0.06897259 0.61939394 55 52 55
0.019310415 0.053976774 0.62662804 108 104 107
0.016550362 0.041078806 0.632774 180 174 175
0.016935945 0.0357728 0.63496137 181 176 176
0.017680168 0.031345606 0.6366916 178 173 173
0.018512487 0.02714634 0.6383045 178 173 174
0.018600881 0.06548309 0.6164638 65 63 66
0.021402359 0.065906525 0.6156504 39 37 39
0.014069498 0.041932106 0.62762296 105 100 102
0.013129532 0.03342676 0.6314961 178 172 173
0.013710022 0.028601646 0.6334425 176 171 171
0.014571726 0.024467707 0.63502777 172 166 167
0.015517592 0.020550728 0.63650084 172 166 167
0.016526818 0.016799927 0.6378881 172 166 167
0.017478943 0.012928724 0.6393399 170 164 165
0.018526733 0.009297848 0.64066696 168 162 163
0.01957196 0.005675316 0.6419909 164 158 159
0.020677745 0.0022084713 0.64323413 161 156 157
0.021248758 0.065825224 0.6130177 76 73 77
0.010432541 0.033461332 0.6294241 164 158 160
0.010563731 0.027545929 0.63194656 176 170 171
0.011328459 0.023174763 0.63365984 172 166 167
0.012292981 0.019298077 0.63511467 171 165 166
0.013374627 0.01571536 0.6364161 170 165 166
0.014520168 0.012298107 0.6376319 169 163 164
0.0157336 0.009054661 0.6387572 167 161 162
0.01693958 0.0058050156 0.639887 166 160 161
0.0182181 0.002737999 0.6409215 164 158 159
-0.002583027 0.02131486 0.63230324 163 159 164
-0.0014324188 0.017863989 0.6335379 179 174 178
6.210804e-05 0.015256166 0.63432896 181 176 179
0.0017435551 0.0131073 0.634879 172 167 169
0.0034350157 0.010987997 0.6354139 166 161 162
0.005154431 0.008940935 0.63591087 164 159 160
0.006898284 0.0069577694 0.63637483 166 161 162
0.00863266 0.0049567223 0.63684857 166 160 161
0.010356009 0.0029344559 0.6373341 163 158 158
0.012063384 0.000880003 0.6378373 163 157 157
0.01880008 0.0656724 0.61903524 60 57 61
0.021584988 0.06605792 0.6182437 41 39 41
0.024241984 0.0661273 0.6176164 96 91 93
0.015073061 0.03781271 0.6318389 179 174 175
0.015514612 0.03264618 0.6339587 179 173 174
0.016302407 0.028327942 0.6356361 174 168 170
0.017192543 0.024271011 0.63717854 174 168 170
0.018102825 0.020278692 0.6386888 174 168 169
0.019031346 0.016345024 0.64016926 173 166 167
0.019921958 0.012337446 0.6416904 169 163 164
0.020856142 0.008448601 0.64315057 164 158 159
0.02180785 0.0046155453 0.6445831 160 155 155
0.022731006 0.00073099136 0.6460438 159 154 155
0.0061889887 0.029762506 0.6293162 163 158 161
0.0060728192 0.023248672 0.63215935 181 176 178
0.006970763 0.019199133 0.6337073 171 165 167
0.0081778765 0.015906572 0.6348579 170 164 165
0.009520829 0.012949944 0.6358323 171 165 166
0.010920942 0.010139942 0.6367307 169 163 164
0.012386322 0.007494211 0.6375432 167 161 162
0.013839066 0.0048270226 0.63836765 165 159 160
0.015335321 0.002270937 0.6391343 164 158 159
-0.010341346 0.021506548 0.6313294 205 204 208
-0.00950563 0.01727271 0.6329787 212 210 213
-0.00821209 0.014170647 0.63403213 212 209 213
-0.006676674 0.011667252 0.6347703 207 204 207
-0.0049940348 0.0095283985 0.6353171 197 195 198
-0.0031832457 0.007704258 0.6356975 188 184 187
-0.0012902021 0.006082535 0.63597167 177 173 175
0.00068712234 0.00466609 0.63613737 168 163 164
0.0026810765 0.00329113 0.6362814 164 158 160
0.0046423078 0.0018398762 0.6364658 162 156 157
0.0066835284 0.0005803108 0.6365489 156 150 151
-0.0155674815 0.027917385 0.627076 165 163 169
-0.015974283 0.020584345 0.6303613 215 213 216
-0.015125692 0.016369104 0.63200307 220 218 222
-0.01392597 0.013031721 0.6331829 220 218 221
-0.012504399 0.010248423 0.6340705 217 215 219
-0.010944128 0.007812738 0.63477564 214 212 216
-0.009237409 0.0057399273 0.6352891 212 210 214
-0.007455528 0.0038547516 0.6357038 209 207 211
-0.0055713654 0.0022206306 0.63598573 205 202 205
-0.00361228 0.0007703304 0.63617074 191 187 190
-0.027525961 0.024662018 0.62325966 170 167 173
-0.027871788 0.0174191 0.6265137 215 213 216
-0.027076185 0.013047934 0.62824726 214 212 215
-0.025972843 0.009457827 0.62956774 211 209 211
-0.02468121 0.006347418 0.63063467 210 207 211
-0.023240268 0.0036168098 0.6315012 209 207 210
-0.021707356 0.0011208057 0.63224363 209 207 209
-0.036154866 0.023610592 0.6150725 130 126 131
-0.037709415 0.013270855 0.62000537 198 194 196
-0.037210345 0.008134365 0.62216127 200 196 197
-0.036265552 0.0041368008 0.62371075 196 192 193
-0.03506577 0.00079107285 0.62491286 196 192 194
-0.020636976 0.022040844 0.62813854 202 199 204
-0.020107865 0.017017603 0.6302097 218 216 220
-0.01908362 0.013236523 0.63162553 218 216 219
-0.017798066 0.010112286 0.63269544 216 214 217
-0.01634729 0.007403612 0.63354576 215 213 216
-0.014782369 0.0049836636 0.63424456 214 211 214
-0.013104141 0.0028464794 0.63479376 213 211 214
-0.011319816 0.00097346306 0.6352036 212 210 214
-0.04228115 0.009186506 0.614923 192 187 188
-0.041823387 0.0039389133 0.6171529 187 182 183
-0.040949345 0.012203693 0.6159247 190 185 187
-0.040679276 0.006478548 0.6184052 193 188 189
-0.039839923 0.0022087097 0.62010705 188 183 184
-0.021351874 0.007958889 0.63180685 213 211 213
-0.019900143 0.005254507 0.63265705 212 210 213
-0.018341899 0.002820015 0.6333653 212 210 213
-0.0166893 0.000623703 0.6339475 212 210 213
-0.035577893 0.018291712 0.6199473 181 177 181
-0.035541236 0.01198554 0.6227217 207 203 205
-0.034766555 0.0075547695 0.624498 202 199 200
-0.03365636 0.003979206 0.6258193 200 196 198
-0.032329917 0.0009558201 0.62684715 200 197 198
-0.023981988 0.026785135 0.6241754 175 172 178
-0.024471164 0.01919818 0.62760556 218 216 219
-0.023750365 0.014646292 0.62943125 217 215 218
-0.022671878 0.010998011 0.63077986 214 212 215
-0.044101 0.01170826 0.6089096 184 179 181
-0.044312537 0.0047471523 0.61207247 187 181 182
0.0399096 0.0009768009 0.6128272 74 70 72
0.05015731 0.0010993481 0.6023612 68 65 67
-0.041169345 0.01843071 0.610548 131 127 131
-0.044967413 0.009863853 0.6072782 186 182 183
-0.04508394 0.0031440258 0.6103177 184 178 179
0.04244089 0.0010070801 0.60955405 58 54 56
-0.0392648 0.016109228 0.6164552 173 169 172
-0.03932321 0.009550571 0.61937606 198 194 195
-0.03861165 0.0049545765 0.6212481 193 188 190
-0.03757 0.0012047291 0.62266874 192 187 189
-0.042945325 0.014284611 0.6101488 171 166 169
-0.043399334 0.0067083836 0.61363554 190 184 185
-0.04281324 0.0017864704 0.615695 184 178 179
-0.030015707 0.025168657 0.62095106 158 155 160
-0.030890882 0.016582489 0.6249243 211 208 210
-0.030169785 0.012018204 0.6267636 211 208 211
-0.029101253 0.008337259 0.62813497 207 205 207
-0.027828097 0.00517869 0.62923014 207 204 206
-0.026414692 0.0023782253 0.6301352 207 204 207
0.044977248 0.0010371208 0.6062741 56 52 54
-0.045658052 0.008463621 0.60540783 186 181 182
-0.045733154 0.0018486977 0.60839725 180 174 175
-0.047335267 0.012079716 0.5934994 165 160 162
-0.047966123 0.0040163994 0.5973035 174 167 169
-0.0439198 0.019691706 0.5972805 144 140 144
-0.04631543 0.007148266 0.60349226 185 180 181
-0.046252668 0.0008814335 0.6062989 175 170 171
-0.048016846 0.010702372 0.5916102 170 164 166
-0.048433244 0.003182888 0.59512484 170 164 165
-0.046524704 0.01378417 0.59521043 162 156 159
-0.04744816 0.0049784184 0.5994109 177 171 173
-0.033497334 0.01677537 0.62278867 207 204 207
-0.03303206 0.01156044 0.6249776 209 206 208
-0.03204918 0.0076596737 0.6264684 204 201 203
-0.030812204 0.004406452 0.6276158 203 200 202
-0.029441714 0.0014965534 0.6285813 203 200 203
-0.045571744 0.015850067 0.59672606 156 151 154
-0.046899736 0.0060179234 0.6014763 182 176 177
-0.04673034 2.002716e-05 0.60414267 173 167 167
-0.05014056 0.000259161 0.5861788 158 152 152
-0.048643827 0.009464502 0.58964574 174 169 170
-0.048895 0.0023634434 0.5929383 168 162 163
-0.049180984 0.008455038 0.587556 176 170 171
-0.049331725 0.0016069412 0.59071636 164 158 158
-0.049692035 0.0075116158 0.58542943 175 169 170
-0.049744964 0.000910759 0.5884603 160 154 155
-0.047844052 0.019087076 0.57700026 123 119 123
-0.05015433 0.006692648 0.58323395 174 168 169
-0.050308287 0.013888121 0.57189393 146 141 144
-0.051389754 0.0046212673 0.57642925 165 159 160
-0.051728368 0.011353016 0.56531096 156 150 153
-0.052420914 0.0030705929 0.5693246 162 157 158
-0.04970622 0.0150613785 0.57390475 139 135 139
-0.05102086 0.0052022934 0.57875896 168 162 163
-0.050875664 0.012802839 0.5698339 151 146 149
-0.051745236 0.004074335 0.5740793 163 158 159
-0.0489797 0.01655221 0.57574034 131 127 131
-0.050604463 0.0059046745 0.5810207 171 165 166
-0.05212289 0.010710001 0.56300235 156 151 153
-0.052723408 0.0026595592 0.56689465 161 156 156
-0.052439272 0.010265827 0.5605806 157 151 153
-0.052998126 0.0023190975 0.56442285 159 154 154
-0.05300671 0.009546757 0.55563784 157 151 153
-0.05351025 0.0017340183 0.55942047 159 154 155
-0.053792775 0.009002686 0.5452223 156 150 152
-0.05431205 0.0011339188 0.54906774 162 156 157
-0.054144204 0.0012004375 0.5517067 163 157 158
-0.053246796 0.009298801 0.5531006 156 150 152
-0.053732038 0.0015287399 0.55686665 160 154 155
-0.053447068 0.009153128 0.5505034 156 150 152
-0.05395204 0.0013289452 0.55430806 162 156 157
-0.051311195 0.012054443 0.5675858 154 149 151
-0.052087784 0.0035603046 0.5717093 163 157 158
-0.054005682 0.009192944 0.53973603 153 148 150
-0.054619312 0.001074791 0.54374015 160 154 155
-0.053638875 0.00902915 0.5478916 156 150 152
-0.05274713 0.00984478 0.5581448 157 152 153
-0.05326277 0.0020046234 0.5619352 159 153 154
-0.0532521 0.012598038 0.52698636 132 128 131
-0.054938614 0.0017135143 0.5326177 153 148 149
-0.05360359 0.012439251 0.52166057 125 121 124
-0.054981887 0.0023329258 0.5268645 150 145 146
-0.054008067 0.010293007 0.5310172 138 133 136
-0.05489695 0.0014560223 0.5354593 154 148 149
-0.053921282 0.009041309 0.5425128 155 149 151
-0.054479957 0.0010678768 0.5464262 160 155 156
-0.054101586 0.009684563 0.5340655 144 139 142
-0.054834366 0.0012521744 0.53826666 156 150 152
-0.053732395 0.011738539 0.52477515 128 123 127
-0.054973602 0.0019886494 0.5297626 152 146 147
-0.052195787 0.017534971 0.5078192 112 108 113
-0.05489236 0.0040261745 0.5150516 156 150 152
-0.053103447 0.014463425 0.5150558 119 115 119
-0.05493933 0.0031728745 0.5209693 152 146 148
-0.05405873 0.0094258785 0.53691006 150 145 147
-0.05472666 0.0011637211 0.5410048 158 152 153
-0.05341029 0.013305664 0.51844525 122 118 121
-0.05496061 0.002752781 0.523919 151 145 147
-0.05468607 0.006395817 0.50005245 160 155 157
-0.052742004 0.01576209 0.5115788 115 111 115
-0.054917812 0.0035939217 0.5180154 153 147 148
0.69990134 0.026284218 0.2999997 159 186 167
0.7023804 0.024986982 0.29999948 163 199 170
0.7048596 0.02368927 0.29999948 164 201 171
0.7073382 0.02239132 0.29999983 165 202 171
0.70981765 0.021094084 0.2999997 165 202 172
0.71229637 0.019795895 0.2999997 164 201 171
0.71477556 0.01849842 0.29999983 164 201 170
0.7172545 0.017200708 0.30000007 164 202 170
0.7197331 0.015902996 0.30000007 163 203 169
0.7222127 0.014605522 0.29999995 164 204 171
0.7246913 0.01330781 0.30000007 169 207 175
0.7271707 0.012010336 0.29999995 168 208 174
0.7296493 0.010712624 0.3000003 169 207 175
0.73212886 0.00941515 0.30000007 170 203 177
-0.054533124 0.0075273514 0.49391675 158 152 154
0.71071625 0.007596493 0.3000002 163 199 171
0.71318746 0.0063033104 0.30000007 164 200 171
0.71565855 0.0050094128 0.3000003 164 200 171
0.7181295 0.0037162304 0.3000002 166 202 173
0.72060084 0.0024223328 0.3000003 167 203 174
0.7230718 0.0011286736 0.3000003 167 204 174
0.69094753 0.017944813 0.29999983 168 202 174
0.6934184 0.016650677 0.30000007 164 202 170
0.6958897 0.015357494 0.29999995 163 200 170
0.69836104 0.014064074 0.29999995 162 198 169
0.70083165 0.012770176 0.30000007 162 198 169
0.70330286 0.011476517 0.3000003 162 198 169
0.7057743 0.010183811 0.30000007 163 198 170
0.70824516 0.008889914 0.3000002 163 199 170
-0.054775596 0.005428314 0.50607526 161 155 157
-0.05461067 0.006958723 0.4969883 159 154 156
-0.054867268 0.0044579506 0.512084 157 151 153
0.7081244 0.028524637 0.2999997 163 185 170
0.7106075 0.02722478 0.29999983 168 194 175
0.71309054 0.025925875 0.29999983 170 199 177
0.7155739 0.024625778 0.29999983 169 202 176
0.7180568 0.02332592 0.29999983 167 203 174
0.7205399 0.0220263 0.29999983 165 203 172
0.72302246 0.020726442 0.29999995 165 202 172
0.7255055 0.019427061 0.29999995 167 201 173
0.7279885 0.018127441 0.29999995 167 198 174
0.7304715 0.016827583 0.29999995 166 191 173
-0.054821312 0.004943371 0.50908136 159 153 155
0.7263558 0.0059132576 0.30000007 170 207 176
0.7288307 0.004617691 0.3000003 177 211 183
0.7313055 0.0033221245 0.3000003 177 212 183
0.73378086 0.002026558 0.30000007 172 196 180
-0.05472946 0.0059154034 0.5030637 161 156 158
0.69417953 0.022755384 0.29999983 162 187 169
0.6966553 0.021460295 0.2999996 164 202 170
0.6991296 0.020164251 0.29999983 162 201 169
0.70160496 0.018868446 0.29999983 163 199 170
0.7040801 0.017573357 0.29999983 163 199 170
0.70655525 0.01627779 0.29999995 163 199 170
0.70903015 0.0149822235 0.29999995 164 200 170
0.71150553 0.013686895 0.30000007 165 201 171
0.7139803 0.012390852 0.30000007 165 201 172
0.71645534 0.011095524 0.3000002 165 202 171
0.7189307 0.009799957 0.29999995 165 202 171
0.72140527 0.008504391 0.30000007 167 204 174
0.7238805 0.0072083473 0.3000003 168 206 175
0.6877254 0.013148785 0.29999995 161 198 168
0.6901921 0.011857033 0.3000003 168 203 175
0.6926595 0.0105650425 0.3000003 164 198 171
0.68479097 0.008402348 0.29672873 33 81 32
0.6843928 0.003171444 0.2994163 72 132 73
0.68623006 0.0010273457 0.30000043 141 185 146
-0.054302335 0.0092327595 0.48467767 153 148 150
-0.05495608 0.00094127655 0.48895276 163 157 159
0.69512665 0.009274483 0.29999995 160 195 167
0.69759417 0.007982969 0.30000007 160 195 167
0.70006084 0.0066912174 0.3000003 160 196 168
0.7025285 0.005400181 0.3000003 161 196 168
0.7049954 0.004108429 0.3000003 162 197 169
0.70746267 0.002817154 0.3000003 164 198 171
